130.67	32.663	23.491
130.675	32.659	21.576
130.68	32.655	19.66
130.683	32.682	23.491
130.6875	32.649	16.7875
130.688	32.677	21.576
130.693	32.674	19.66
130.695	32.644	13.915
130.696	32.7	23.491
130.698	32.67	17.745
130.699	32.64	12
130.701	32.696	21.576
130.703	32.637	9.1275
130.703	32.666	15.83
130.708	32.633	5.756
130.708	32.662	13.915
130.7085	32.69	18.7025
130.711	32.717	23.491
130.7135	32.6285	2.172
130.715	32.656	10.085
130.715	32.713	21.576
130.716	32.684	15.83
130.72	32.71	19.66
130.723	32.65	4.525
130.723	32.6785	12.9575
130.724	32.706	17.745
130.725	32.735	23.491
130.728	32.646	1.05
130.728	32.675	10.085
130.729	32.703	15.83
130.729	32.731	21.576
130.73	32.673	8.17
130.735	32.7265	18.7025
130.7355	32.669	4.525
130.7355	32.6975	12.9575
130.736	32.754	23.491
130.74	32.665	1.05
130.74	32.751	21.576
130.742	32.692	8.17
130.743	32.7205	14.8725
130.743	32.748	19.66
130.744	32.775	23.491
130.747	32.745	17.745
130.748	32.772	21.576
130.749	32.716	12
130.75	32.742	15.83
130.75	32.797	23.491
130.7505	32.686	2.172
130.751	32.714	10.085
130.752	32.769	19.66
130.754	32.793	21.576
130.755	32.766	17.745
130.756	32.71	6.963
130.756	32.738	12.9575
130.759	32.763	15.83
130.759	32.79	19.66
130.759	32.817	23.491
130.763	32.7045	2.172
130.763	32.76	13.915
130.7635	32.7325	9.1275
130.764	32.787	17.745
130.764	32.813	21.576
130.767	32.757	12
130.77	32.728	5.756
130.77	32.81	19.66
130.771	32.754	10.085
130.7715	32.7815	14.8725
130.773	32.834	23.491
130.775	32.724	3.294
130.776	32.751	8.17
130.778	32.777	12
130.7785	32.804	16.7875
130.779	32.721	1.05
130.779	32.83	21.576
130.782	32.747	5.756
130.783	32.773	10.085
130.784	32.827	19.66
130.787	32.798	13.915
130.788	32.743	3.294
130.788	32.77	8.17
130.789	32.85	23.491
130.79	32.823	17.745
130.792	32.795	12
130.793	32.739	1.05
130.794	32.766	5.756
130.794	32.847	21.576
130.7985	32.818	14.8725
130.7995	32.7895	9.1275
130.8	32.762	3.294
130.8	32.844	19.66
130.805	32.758	1.05
130.805	32.84	17.745
130.805	32.865	23.491
130.807	32.812	12
130.808	32.783	5.756
130.811	32.837	15.83
130.812	32.808	10.085
130.813	32.8605	20.618
130.815	32.779	3.294
130.816	32.833	13.915
130.818	32.804	8.17
130.82	32.775	1.05
130.821	32.856	17.745
130.822	32.829	12
130.822	32.879	23.491
130.824	32.799	5.756
130.827	32.852	15.83
130.828	32.825	10.085
130.828	32.876	21.576
130.831	32.794	3.294
130.832	32.849	13.915
130.834	32.82	8.17
130.834	32.873	19.66
130.838	32.789	1.05
130.838	32.845	12
130.839	32.869	17.745
130.839	32.894	23.491
130.841	32.814	5.756
130.845	32.84	10.085
130.845	32.866	15.83
130.846	32.89	21.576
130.849	32.808	3.294
130.85	32.862	13.915
130.851	32.834	8.17
130.852	32.886	19.66
130.856	32.803	1.05
130.856	32.858	12
130.857	32.908	23.491
130.858	32.881	17.745
130.86	32.828	5.756
130.863	32.852	10.085
130.864	32.877	15.83
130.864	32.903	21.576
130.868	32.821	3.294
130.87	32.846	8.17
130.87	32.872	13.915
130.871	32.898	19.66
130.875	32.814	1.05
130.876	32.92	23.491
130.877	32.868	12
130.877	32.893	17.745
130.879	32.839	5.756
130.883	32.915	21.576
130.884	32.862	10.085
130.884	32.888	15.83
130.888	32.832	3.294
130.89	32.883	13.915
130.89	32.91	19.66
130.891	32.856	8.17
130.895	32.825	1.05
130.896	32.931	23.491
130.897	32.878	12
130.897	32.905	17.745
130.899	32.849	5.756
130.903	32.9	15.83
130.903	32.926	21.576
130.904	32.872	10.085
130.908	32.842	3.294
130.909	32.921	19.66
130.91	32.894	13.915
130.911	32.867	8.17
130.915	32.943	23.491
130.916	32.835	1.05
130.916	32.916	17.745
130.917	32.889	12
130.919	32.86	5.756
130.922	32.938	21.576
130.923	32.884	10.085
130.923	32.911	15.83
130.928	32.853	3.294
130.929	32.906	13.915
130.929	32.933	19.66
130.93	32.878	8.17
130.935	32.954	23.491
130.936	32.846	1.05
130.936	32.901	12
130.936	32.928	17.745
130.939	32.872	5.756
130.942	32.896	10.085
130.942	32.923	15.83
130.942	32.949	21.576
130.947	32.865	3.294
130.948	32.944	19.66
130.949	32.891	8.17
130.949	32.918	13.915
130.955	32.858	1.05
130.955	32.913	12
130.955	32.94	17.745
130.955	32.965	23.491
130.957	32.885	5.756
130.961	32.909	10.085
130.961	32.96	21.576
130.962	32.935	15.83
130.965	32.878	3.294
130.967	32.904	8.17
130.968	32.93	13.915
130.968	32.956	19.66
130.973	32.872	1.05
130.974	32.925	12
130.974	32.951	17.745
130.975	32.899	5.756
130.975	32.975	23.491
130.98	32.921	10.085
130.981	32.947	15.83
130.981	32.971	21.576
130.982	32.893	3.294
130.986	32.917	8.17
130.987	32.942	13.915
130.987	32.967	19.66
130.989	32.888	1.05
130.993	32.912	5.756
130.993	32.938	12
130.994	32.963	17.745
130.999	32.934	10.085
131	32.907	3.294
131	32.959	15.83
131.005	32.93	8.17
131.006	32.955	13.915
131.007	32.902	1.05
131.012	32.925	5.756
131.012	32.951	12
131.017	32.947	10.085
131.019	32.92	3.294
131.023	32.943	8.17
131.025	32.915	1.05
131.03	32.938	5.756
131.037	32.933	3.294
